2394587.000000 4572414.000000 276.000000
2394537.000000 4572364.000000 286.000000
2394587.000000 4572364.000000 277.000000
2394637.000000 4572364.000000 271.000000
2394637.000000 4572314.000000 268.000000
2394537.000000 4572314.000000 285.000000
2394587.000000 4572314.000000 276.000000
2394487.000000 4572314.000000 294.000000
2394437.000000 4572314.000000 302.000000
2394437.000000 4572264.000000 300.000000
2394437.000000 4572214.000000 296.000000
2394487.000000 4572214.000000 286.000000
2394587.000000 4572214.000000 274.000000
2394537.000000 4572214.000000 278.000000
2394537.000000 4572264.000000 282.000000
2394587.000000 4572264.000000 275.000000
2394637.000000 4572264.000000 267.000000
2394637.000000 4572214.000000 269.000000
2394687.000000 4572214.000000 263.000000
2394787.000000 4572214.000000 264.000000
2394737.000000 4572214.000000 261.000000
2394787.000000 4572264.000000 253.000000
2394737.000000 4572264.000000 251.000000
2394687.000000 4572264.000000 257.000000
2394687.000000 4572314.000000 260.000000
2394737.000000 4572314.000000 253.000000
2394787.000000 4572314.000000 251.000000
2394837.000000 4572314.000000 250.000000
2394937.000000 4572314.000000 249.000000
2394937.000000 4572264.000000 255.000000
2394887.000000 4572264.000000 256.000000
2394837.000000 4572264.000000 255.000000
2394837.000000 4572214.000000 266.000000
2394887.000000 4572214.000000 267.000000
2394937.000000 4572214.000000 265.000000
2394987.000000 4572214.000000 256.000000
2394987.000000 4572264.000000 252.000000
2395037.000000 4572214.000000 251.000000
2395137.000000 4572214.000000 251.000000
2395187.000000 4572214.000000 248.000000
2395187.000000 4572264.000000 232.000000
2395137.000000 4572264.000000 240.000000
2395087.000000 4572264.000000 252.000000
2395187.000000 4572314.000000 227.000000
2395087.000000 4572314.000000 233.000000
2395037.000000 4572314.000000 247.000000
2394987.000000 4572314.000000 249.000000
2394987.000000 4572414.000000 251.000000
2395037.000000 4572414.000000 253.000000
2395037.000000 4572364.000000 249.000000
2395087.000000 4572364.000000 238.000000
2395137.000000 4572364.000000 234.000000
2395187.000000 4572364.000000 239.000000
2395137.000000 4572414.000000 247.000000
2395087.000000 4572414.000000 248.000000
2395087.000000 4572464.000000 257.000000
2395137.000000 4572464.000000 254.000000
2395187.000000 4572464.000000 249.000000
2395187.000000 4572514.000000 239.000000
2395137.000000 4572514.000000 249.000000
2395087.000000 4572514.000000 259.000000
2395037.000000 4572514.000000 270.000000
2395037.000000 4572464.000000 261.000000
2394987.000000 4572464.000000 258.000000
2394987.000000 4572514.000000 269.000000
2394937.000000 4572514.000000 268.000000
2394887.000000 4572514.000000 275.000000
2394837.000000 4572514.000000 280.000000
2394837.000000 4572464.000000 274.000000
2394887.000000 4572464.000000 265.000000
2394937.000000 4572464.000000 257.000000
2394937.000000 4572414.000000 250.000000
2394937.000000 4572364.000000 248.000000
2394887.000000 4572364.000000 250.000000
2394837.000000 4572364.000000 254.000000
2394837.000000 4572414.000000 263.000000
2394737.000000 4572414.000000 269.000000
2394787.000000 4572414.000000 268.000000
2394787.000000 4572364.000000 257.000000
2394737.000000 4572364.000000 259.000000
2394687.000000 4572364.000000 265.000000
2394687.000000 4572414.000000 270.000000
2394787.000000 4572464.000000 278.000000
2394737.000000 4572464.000000 276.000000
2394787.000000 4572514.000000 282.000000
2394687.000000 4572514.000000 274.000000
2394687.000000 4572564.000000 276.000000
2394737.000000 4572564.000000 279.000000
2394687.000000 4572614.000000 279.000000
2394687.000000 4572664.000000 282.000000
2394737.000000 4572664.000000 288.000000
2394787.000000 4572664.000000 291.000000
2394737.000000 4572614.000000 283.000000
2394787.000000 4572614.000000 285.000000
2394837.000000 4572614.000000 283.000000
2394837.000000 4572664.000000 290.000000
2394887.000000 4572664.000000 282.000000
2394937.000000 4572664.000000 275.000000
2394887.000000 4572614.000000 279.000000
2394937.000000 4572614.000000 276.000000
2394837.000000 4572564.000000 282.000000
2394887.000000 4572564.000000 278.000000
2394937.000000 4572564.000000 274.000000
2395037.000000 4572564.000000 274.000000
2395087.000000 4572564.000000 254.000000
2395137.000000 4572564.000000 232.000000
2395187.000000 4572564.000000 222.000000
2395087.000000 4572614.000000 242.000000
2395137.000000 4572614.000000 226.000000
2395187.000000 4572614.000000 218.000000
2395187.000000 4572664.000000 217.000000
2395137.000000 4572664.000000 221.000000
2395087.000000 4572664.000000 229.000000
2395037.000000 4572664.000000 245.000000
2395037.000000 4572614.000000 261.000000
2394987.000000 4572664.000000 266.000000
2394987.000000 4572764.000000 244.000000
2395037.000000 4572714.000000 234.000000
2395087.000000 4572714.000000 221.000000
2395137.000000 4572714.000000 220.000000
2395187.000000 4572714.000000 221.000000
2395187.000000 4572764.000000 226.000000
2395137.000000 4572764.000000 225.000000
2395087.000000 4572764.000000 225.000000
2395137.000000 4572814.000000 233.000000
2395187.000000 4572814.000000 234.000000
2395037.000000 4572814.000000 237.000000
2394837.000000 4572814.000000 284.000000
2394887.000000 4572814.000000 264.000000
2394937.000000 4572814.000000 249.000000
2394937.000000 4572764.000000 249.000000
2394887.000000 4572764.000000 269.000000
2394937.000000 4572714.000000 259.000000
2394887.000000 4572714.000000 280.000000
2394837.000000 4572714.000000 299.000000
2394837.000000 4572764.000000 290.000000
2394787.000000 4572764.000000 299.000000
2394787.000000 4572714.000000 298.000000
2394737.000000 4572714.000000 294.000000
2394687.000000 4572714.000000 287.000000
2394687.000000 4572764.000000 290.000000
2394687.000000 4572814.000000 292.000000
2394737.000000 4572814.000000 299.000000
2394637.000000 4572814.000000 282.000000
2394587.000000 4572814.000000 277.000000
2394437.000000 4572764.000000 278.000000
2394437.000000 4572714.000000 281.000000
2394487.000000 4572714.000000 279.000000
2394537.000000 4572764.000000 276.000000
2394637.000000 4572764.000000 281.000000
2394637.000000 4572714.000000 280.000000
2394587.000000 4572664.000000 276.000000
2394537.000000 4572614.000000 278.000000
2394637.000000 4572614.000000 275.000000
2394637.000000 4572564.000000 274.000000
2394537.000000 4572564.000000 280.000000
2394437.000000 4572564.000000 294.000000
2394437.000000 4572614.000000 290.000000
2394487.000000 4572614.000000 284.000000
2394487.000000 4572664.000000 281.000000
2394437.000000 4572664.000000 285.000000
2394337.000000 4572664.000000 288.000000
2394287.000000 4572664.000000 284.000000
2394287.000000 4572614.000000 293.000000
2394337.000000 4572614.000000 296.000000
2394387.000000 4572614.000000 294.000000
2394387.000000 4572564.000000 299.000000
2394337.000000 4572564.000000 303.000000
2394287.000000 4572564.000000 302.000000
2394237.000000 4572564.000000 303.000000
2394187.000000 4572564.000000 304.000000
2394137.000000 4572564.000000 307.000000
2394137.000000 4572614.000000 301.000000
2394187.000000 4572614.000000 296.000000
2394237.000000 4572614.000000 294.000000
2394237.000000 4572664.000000 285.000000
2394187.000000 4572664.000000 288.000000
2394137.000000 4572664.000000 295.000000
2394137.000000 4572714.000000 291.000000
2394137.000000 4572764.000000 288.000000
2394187.000000 4572764.000000 281.000000
2394237.000000 4572764.000000 276.000000
2394237.000000 4572714.000000 278.000000
2394287.000000 4572714.000000 277.000000
2394337.000000 4572714.000000 281.000000
2394387.000000 4572714.000000 283.000000
2394387.000000 4572764.000000 279.000000
2394287.000000 4572764.000000 275.000000
2394387.000000 4572814.000000 276.000000
2394337.000000 4572814.000000 275.000000
2394237.000000 4572814.000000 275.000000
2394187.000000 4572814.000000 279.000000
2394137.000000 4572814.000000 285.000000
2394087.000000 4572814.000000 294.000000
2394087.000000 4572764.000000 299.000000
2394087.000000 4572714.000000 302.000000
2394037.000000 4572714.000000 317.000000
2394037.000000 4572764.000000 313.000000
2393987.000000 4572764.000000 329.000000
2393937.000000 4572764.000000 338.000000
2393987.000000 4572714.000000 332.000000
2393937.000000 4572714.000000 342.000000
2393887.000000 4572714.000000 355.000000
2393887.000000 4572764.000000 352.000000
2393887.000000 4572814.000000 343.000000
2393987.000000 4572814.000000 317.000000
2393937.000000 4572814.000000 327.000000
2393837.000000 4572814.000000 363.000000
2393787.000000 4572814.000000 386.000000
2393737.000000 4572814.000000 408.000000
2393637.000000 4572814.000000 461.000000
2393587.000000 4572814.000000 478.000000
2393687.000000 4572814.000000 434.000000
2393687.000000 4572764.000000 448.000000
2393637.000000 4572764.000000 477.000000
2393587.000000 4572764.000000 494.000000
2393587.000000 4572714.000000 501.000000
2393637.000000 4572714.000000 479.000000
2393687.000000 4572714.000000 450.000000
2393737.000000 4572714.000000 418.000000
2393737.000000 4572764.000000 417.000000
2393787.000000 4572764.000000 390.000000
2393837.000000 4572764.000000 370.000000
2393787.000000 4572714.000000 390.000000
2393837.000000 4572714.000000 371.000000
2393787.000000 4572664.000000 393.000000
2393787.000000 4572614.000000 394.000000
2393737.000000 4572614.000000 421.000000
2393737.000000 4572664.000000 419.000000
2393587.000000 4572664.000000 502.000000
2393637.000000 4572664.000000 481.000000
2393587.000000 4572614.000000 496.000000
2393637.000000 4572614.000000 480.000000
2393687.000000 4572614.000000 451.000000
2393637.000000 4572564.000000 473.000000
2393587.000000 4572564.000000 483.000000
2393687.000000 4572564.000000 448.000000
2393737.000000 4572564.000000 420.000000
2393837.000000 4572564.000000 371.000000
2393787.000000 4572564.000000 394.000000
2393987.000000 4572564.000000 326.000000
2393937.000000 4572564.000000 337.000000
2393887.000000 4572664.000000 353.000000
2393937.000000 4572664.000000 341.000000
2393987.000000 4572664.000000 330.000000
2393937.000000 4572614.000000 339.000000
2393987.000000 4572614.000000 328.000000
2394037.000000 4572664.000000 318.000000
2394087.000000 4572664.000000 305.000000
2394087.000000 4572614.000000 308.000000
2394037.000000 4572564.000000 318.000000
2394087.000000 4572564.000000 312.000000
2394087.000000 4572514.000000 318.000000
2394087.000000 4572464.000000 324.000000
2394037.000000 4572464.000000 323.000000
2394037.000000 4572514.000000 320.000000
2393987.000000 4572514.000000 325.000000
2393937.000000 4572514.000000 335.000000
2393887.000000 4572514.000000 352.000000
2393887.000000 4572464.000000 350.000000
2393937.000000 4572464.000000 332.000000
2393987.000000 4572464.000000 324.000000
2393937.000000 4572414.000000 337.000000
2393887.000000 4572414.000000 346.000000
2393887.000000 4572364.000000 350.000000
2393937.000000 4572364.000000 348.000000
2393987.000000 4572364.000000 341.000000
2394037.000000 4572364.000000 343.000000
2394037.000000 4572414.000000 332.000000
2394087.000000 4572414.000000 334.000000
2394087.000000 4572364.000000 344.000000
2394087.000000 4572314.000000 350.000000
2394037.000000 4572314.000000 351.000000
2394087.000000 4572264.000000 353.000000
2394087.000000 4572214.000000 352.000000
2394037.000000 4572214.000000 367.000000
2394037.000000 4572264.000000 360.000000
2393987.000000 4572264.000000 368.000000
2393937.000000 4572264.000000 377.000000
2393937.000000 4572214.000000 392.000000
2393887.000000 4572214.000000 399.000000
2393887.000000 4572264.000000 383.000000
2393987.000000 4572314.000000 353.000000
2393887.000000 4572314.000000 364.000000
2393837.000000 4572314.000000 367.000000
2393787.000000 4572314.000000 371.000000
2393837.000000 4572264.000000 382.000000
2393787.000000 4572264.000000 378.000000
2393837.000000 4572214.000000 392.000000
2393787.000000 4572214.000000 384.000000
2393737.000000 4572214.000000 375.000000
2393737.000000 4572264.000000 374.000000
2393687.000000 4572264.000000 368.000000
2393687.000000 4572214.000000 365.000000
2393637.000000 4572214.000000 355.000000
2393637.000000 4572264.000000 362.000000
2393587.000000 4572264.000000 361.000000
2393687.000000 4572314.000000 375.000000
2393637.000000 4572314.000000 374.000000
2393587.000000 4572314.000000 374.000000
2393587.000000 4572364.000000 391.000000
2393637.000000 4572364.000000 392.000000
2393637.000000 4572414.000000 413.000000
2393687.000000 4572414.000000 404.000000
2393687.000000 4572364.000000 385.000000
2393787.000000 4572364.000000 368.000000
2393837.000000 4572364.000000 356.000000
2393837.000000 4572414.000000 356.000000
2393737.000000 4572414.000000 386.000000
2393737.000000 4572464.000000 401.000000
2393837.000000 4572464.000000 364.000000
2393787.000000 4572464.000000 381.000000
2393837.000000 4572514.000000 370.000000
2393787.000000 4572514.000000 389.000000
2393737.000000 4572514.000000 413.000000
2393687.000000 4572514.000000 439.000000
2393687.000000 4572464.000000 422.000000
2393637.000000 4572464.000000 436.000000
2393587.000000 4572464.000000 440.000000
2393637.000000 4572514.000000 459.000000
2393587.000000 4572514.000000 462.000000
2393537.000000 4572464.000000 436.000000
2393487.000000 4572464.000000 429.000000
2393487.000000 4572514.000000 450.000000
2393437.000000 4572514.000000 438.000000
2393387.000000 4572514.000000 421.000000
2393337.000000 4572514.000000 400.000000
2393337.000000 4572464.000000 387.000000
2393387.000000 4572464.000000 404.000000
2393437.000000 4572464.000000 419.000000
2393387.000000 4572414.000000 386.000000
2393337.000000 4572414.000000 372.000000
2393337.000000 4572364.000000 360.000000
2393387.000000 4572364.000000 372.000000
2393437.000000 4572364.000000 382.000000
2393487.000000 4572364.000000 389.000000
2393487.000000 4572414.000000 407.000000
2393537.000000 4572414.000000 413.000000
2393537.000000 4572364.000000 392.000000
2393537.000000 4572314.000000 374.000000
2393487.000000 4572314.000000 372.000000
2393537.000000 4572264.000000 358.000000
2393537.000000 4572214.000000 348.000000
2393487.000000 4572214.000000 341.000000
2393487.000000 4572264.000000 355.000000
2393437.000000 4572264.000000 352.000000
2393387.000000 4572264.000000 347.000000
2393437.000000 4572214.000000 337.000000
2393387.000000 4572214.000000 337.000000
2393337.000000 4572214.000000 335.000000
2393337.000000 4572264.000000 341.000000
2393437.000000 4572314.000000 367.000000
2393337.000000 4572314.000000 349.000000
2393287.000000 4572314.000000 337.000000
2393187.000000 4572314.000000 322.000000
2393237.000000 4572314.000000 328.000000
2393287.000000 4572214.000000 332.000000
2393237.000000 4572214.000000 330.000000
2393187.000000 4572214.000000 329.000000
2393237.000000 4572264.000000 326.000000
2393187.000000 4572264.000000 323.000000
2393137.000000 4572264.000000 317.000000
2393137.000000 4572214.000000 326.000000
2393087.000000 4572214.000000 320.000000
2393087.000000 4572264.000000 309.000000
2393137.000000 4572314.000000 312.000000
2393087.000000 4572314.000000 301.000000
2393087.000000 4572364.000000 303.000000
2393087.000000 4572414.000000 307.000000
2393137.000000 4572414.000000 318.000000
2393187.000000 4572364.000000 326.000000
2393237.000000 4572364.000000 335.000000
2393287.000000 4572364.000000 346.000000
2393287.000000 4572414.000000 358.000000
2393237.000000 4572414.000000 345.000000
2393187.000000 4572414.000000 333.000000
2393187.000000 4572464.000000 335.000000
2393237.000000 4572464.000000 351.000000
2393287.000000 4572464.000000 368.000000
2393287.000000 4572514.000000 377.000000
2393237.000000 4572514.000000 357.000000
2393187.000000 4572514.000000 341.000000
2393137.000000 4572514.000000 326.000000
2393137.000000 4572464.000000 319.000000
2393087.000000 4572464.000000 305.000000
2393087.000000 4572514.000000 308.000000
2393087.000000 4572564.000000 323.000000
2393137.000000 4572564.000000 341.000000
2393087.000000 4572614.000000 345.000000
2393087.000000 4572664.000000 360.000000
2393137.000000 4572664.000000 382.000000
2393137.000000 4572614.000000 363.000000
2393187.000000 4572614.000000 373.000000
2393237.000000 4572614.000000 382.000000
2393187.000000 4572664.000000 395.000000
2393237.000000 4572664.000000 403.000000
2393287.000000 4572664.000000 417.000000
2393287.000000 4572614.000000 399.000000
2393187.000000 4572564.000000 353.000000
2393287.000000 4572564.000000 386.000000
2393337.000000 4572564.000000 413.000000
2393437.000000 4572564.000000 457.000000
2393387.000000 4572564.000000 437.000000
2393487.000000 4572564.000000 471.000000
2393537.000000 4572564.000000 481.000000
2393537.000000 4572614.000000 498.000000
2393537.000000 4572664.000000 506.000000
2393487.000000 4572664.000000 503.000000
2393387.000000 4572664.000000 465.000000
2393437.000000 4572664.000000 488.000000
2393437.000000 4572614.000000 474.000000
2393387.000000 4572614.000000 452.000000
2393337.000000 4572614.000000 425.000000
2393337.000000 4572664.000000 440.000000
2393337.000000 4572714.000000 458.000000
2393337.000000 4572764.000000 470.000000
2393387.000000 4572764.000000 483.000000
2393437.000000 4572764.000000 494.000000
2393437.000000 4572714.000000 496.000000
2393487.000000 4572714.000000 507.000000
2393537.000000 4572714.000000 508.000000
2393537.000000 4572764.000000 502.000000
2393487.000000 4572764.000000 504.000000
2393487.000000 4572814.000000 490.000000
2393537.000000 4572814.000000 486.000000
2393387.000000 4572814.000000 474.000000
2393337.000000 4572814.000000 468.000000
2393237.000000 4572814.000000 449.000000
2393187.000000 4572814.000000 433.000000
2393287.000000 4572814.000000 458.000000
2393287.000000 4572764.000000 455.000000
2393287.000000 4572714.000000 438.000000
2393237.000000 4572714.000000 425.000000
2393237.000000 4572764.000000 444.000000
2393187.000000 4572764.000000 428.000000
2393137.000000 4572764.000000 407.000000
2393137.000000 4572714.000000 396.000000
2393087.000000 4572714.000000 374.000000
2393087.000000 4572764.000000 387.000000
2393087.000000 4572814.000000 384.000000
2393037.000000 4572814.000000 361.000000
2392987.000000 4572814.000000 339.000000
2392937.000000 4572814.000000 317.000000
2392787.000000 4572814.000000 257.000000
2392837.000000 4572814.000000 279.000000
2392887.000000 4572814.000000 296.000000
2392837.000000 4572764.000000 284.000000
2392787.000000 4572764.000000 261.000000
2392787.000000 4572714.000000 254.000000
2392837.000000 4572714.000000 283.000000
2392887.000000 4572714.000000 307.000000
2392937.000000 4572714.000000 327.000000
2392937.000000 4572764.000000 329.000000
2392987.000000 4572764.000000 349.000000
2393037.000000 4572764.000000 367.000000
2392987.000000 4572714.000000 340.000000
2393037.000000 4572714.000000 355.000000
2393037.000000 4572664.000000 338.000000
2392987.000000 4572664.000000 322.000000
2392937.000000 4572664.000000 310.000000
2392937.000000 4572614.000000 288.000000
2392987.000000 4572614.000000 304.000000
2393037.000000 4572614.000000 323.000000
2393037.000000 4572564.000000 304.000000
2392987.000000 4572564.000000 287.000000
2392937.000000 4572564.000000 274.000000
2392887.000000 4572564.000000 269.000000
2392837.000000 4572564.000000 254.000000
2392787.000000 4572564.000000 239.000000
2392837.000000 4572614.000000 265.000000
2392887.000000 4572614.000000 279.000000
2392887.000000 4572664.000000 298.000000
2392787.000000 4572664.000000 252.000000
2392637.000000 4572664.000000 223.000000
2392687.000000 4572664.000000 213.000000
2392637.000000 4572614.000000 237.000000
2392687.000000 4572614.000000 223.000000
2392737.000000 4572614.000000 228.000000
2392737.000000 4572564.000000 231.000000
2392687.000000 4572564.000000 234.000000
2392637.000000 4572564.000000 251.000000
2392587.000000 4572564.000000 271.000000
2392537.000000 4572564.000000 278.000000
2392537.000000 4572614.000000 267.000000
2392587.000000 4572614.000000 256.000000
2392587.000000 4572664.000000 238.000000
2392537.000000 4572664.000000 241.000000
2392537.000000 4572714.000000 215.000000
2392537.000000 4572764.000000 197.000000
2392587.000000 4572714.000000 218.000000
2392637.000000 4572714.000000 209.000000
2392687.000000 4572714.000000 205.000000
2392737.000000 4572714.000000 221.000000
2392737.000000 4572764.000000 231.000000
2392687.000000 4572764.000000 209.000000
2392637.000000 4572764.000000 201.000000
2392687.000000 4572814.000000 210.000000
2392737.000000 4572814.000000 231.000000
2392587.000000 4572814.000000 197.000000
2392537.000000 4572814.000000 198.000000
2392387.000000 4572814.000000 209.000000
2392437.000000 4572814.000000 202.000000
2392487.000000 4572814.000000 200.000000
2392487.000000 4572764.000000 198.000000
2392487.000000 4572714.000000 212.000000
2392437.000000 4572714.000000 210.000000
2392387.000000 4572714.000000 194.000000
2392387.000000 4572764.000000 198.000000
2392337.000000 4572764.000000 193.000000
2392337.000000 4572714.000000 176.000000
2392287.000000 4572714.000000 179.000000
2392237.000000 4572714.000000 187.000000
2392287.000000 4572764.000000 199.000000
2392237.000000 4572764.000000 205.000000
2392237.000000 4572814.000000 220.000000
2392287.000000 4572814.000000 220.000000
2392337.000000 4572814.000000 215.000000
2392137.000000 4572814.000000 201.000000
2392087.000000 4572814.000000 205.000000
2391987.000000 4572814.000000 197.000000
2392037.000000 4572814.000000 209.000000
2391987.000000 4572764.000000 191.000000
2391987.000000 4572714.000000 180.000000
2392037.000000 4572714.000000 182.000000
2392087.000000 4572714.000000 175.000000
2392087.000000 4572764.000000 189.000000
2392137.000000 4572764.000000 191.000000
2392187.000000 4572764.000000 201.000000
2392187.000000 4572714.000000 191.000000
2392187.000000 4572614.000000 172.000000
2392137.000000 4572614.000000 167.000000
2392087.000000 4572614.000000 156.000000
2392087.000000 4572664.000000 168.000000
2392137.000000 4572664.000000 176.000000
2392037.000000 4572664.000000 163.000000
2391987.000000 4572664.000000 161.000000
2391987.000000 4572614.000000 149.000000
2392037.000000 4572614.000000 152.000000
2391987.000000 4572564.000000 165.000000
2392087.000000 4572564.000000 160.000000
2392187.000000 4572564.000000 175.000000
2392237.000000 4572564.000000 183.000000
2392287.000000 4572564.000000 194.000000
2392337.000000 4572564.000000 211.000000
2392237.000000 4572614.000000 174.000000
2392237.000000 4572664.000000 173.000000
2392287.000000 4572664.000000 177.000000
2392337.000000 4572664.000000 189.000000
2392337.000000 4572614.000000 202.000000
2392387.000000 4572614.000000 226.000000
2392387.000000 4572664.000000 212.000000
2392437.000000 4572664.000000 233.000000
2392487.000000 4572664.000000 242.000000
2392437.000000 4572614.000000 250.000000
2392487.000000 4572614.000000 270.000000
2392387.000000 4572564.000000 233.000000
2392437.000000 4572564.000000 256.000000
2392487.000000 4572564.000000 276.000000
2392487.000000 4572514.000000 273.000000
2392437.000000 4572514.000000 256.000000
2392387.000000 4572514.000000 236.000000
2392387.000000 4572464.000000 234.000000
2392437.000000 4572464.000000 251.000000
2392487.000000 4572464.000000 269.000000
2392487.000000 4572414.000000 270.000000
2392487.000000 4572364.000000 274.000000
2392437.000000 4572364.000000 250.000000
2392387.000000 4572364.000000 231.000000
2392387.000000 4572414.000000 230.000000
2392337.000000 4572414.000000 220.000000
2392337.000000 4572364.000000 213.000000
2392287.000000 4572364.000000 197.000000
2392237.000000 4572364.000000 187.000000
2392237.000000 4572414.000000 196.000000
2392287.000000 4572414.000000 211.000000
2392237.000000 4572464.000000 200.000000
2392287.000000 4572464.000000 217.000000
2392337.000000 4572464.000000 225.000000
2392337.000000 4572514.000000 221.000000
2392287.000000 4572514.000000 209.000000
2392237.000000 4572514.000000 195.000000
2392187.000000 4572514.000000 181.000000
2392187.000000 4572464.000000 184.000000
2392137.000000 4572464.000000 173.000000
2392087.000000 4572464.000000 174.000000
2392137.000000 4572514.000000 170.000000
2392087.000000 4572514.000000 167.000000
2392037.000000 4572514.000000 174.000000
2391987.000000 4572514.000000 185.000000
2391987.000000 4572464.000000 197.000000
2392037.000000 4572464.000000 184.000000
2392037.000000 4572414.000000 195.000000
2391987.000000 4572414.000000 209.000000
2391987.000000 4572364.000000 221.000000
2392037.000000 4572364.000000 207.000000
2392087.000000 4572364.000000 190.000000
2392137.000000 4572364.000000 178.000000
2392087.000000 4572414.000000 181.000000
2392137.000000 4572414.000000 175.000000
2392187.000000 4572414.000000 181.000000
2392187.000000 4572364.000000 176.000000
2392187.000000 4572314.000000 174.000000
2392087.000000 4572314.000000 197.000000
2392137.000000 4572314.000000 182.000000
2392037.000000 4572314.000000 217.000000
2391987.000000 4572314.000000 232.000000
2391987.000000 4572264.000000 235.000000
2391987.000000 4572214.000000 243.000000
2392037.000000 4572214.000000 226.000000
2392087.000000 4572214.000000 210.000000
2392087.000000 4572264.000000 205.000000
2392137.000000 4572264.000000 187.000000
2392187.000000 4572264.000000 176.000000
2392187.000000 4572214.000000 183.000000
2392237.000000 4572214.000000 187.000000
2392287.000000 4572214.000000 199.000000
2392337.000000 4572214.000000 212.000000
2392337.000000 4572264.000000 219.000000
2392237.000000 4572264.000000 182.000000
2392237.000000 4572314.000000 180.000000
2392287.000000 4572314.000000 198.000000
2392337.000000 4572314.000000 218.000000
2392387.000000 4572314.000000 238.000000
2392437.000000 4572314.000000 254.000000
2392487.000000 4572314.000000 263.000000
2392487.000000 4572264.000000 247.000000
2392437.000000 4572264.000000 244.000000
2392387.000000 4572264.000000 235.000000
2392387.000000 4572214.000000 222.000000
2392437.000000 4572214.000000 227.000000
2392487.000000 4572214.000000 237.000000
2392537.000000 4572214.000000 256.000000
2392537.000000 4572264.000000 261.000000
2392587.000000 4572264.000000 277.000000
2392587.000000 4572214.000000 273.000000
2392687.000000 4572214.000000 278.000000
2392737.000000 4572264.000000 279.000000
2392687.000000 4572264.000000 280.000000
2392637.000000 4572264.000000 281.000000
2392737.000000 4572314.000000 278.000000
2392637.000000 4572314.000000 279.000000
2392587.000000 4572314.000000 277.000000
2392537.000000 4572314.000000 271.000000
2392537.000000 4572364.000000 278.000000
2392587.000000 4572364.000000 276.000000
2392587.000000 4572414.000000 277.000000
2392537.000000 4572514.000000 277.000000
2392587.000000 4572514.000000 275.000000
2392587.000000 4572464.000000 276.000000
2392687.000000 4572464.000000 265.000000
2392637.000000 4572464.000000 274.000000
2392637.000000 4572514.000000 265.000000
2392687.000000 4572514.000000 249.000000
2392737.000000 4572514.000000 238.000000
2392737.000000 4572464.000000 252.000000
2392737.000000 4572414.000000 266.000000
2392637.000000 4572414.000000 279.000000
2392687.000000 4572414.000000 275.000000
2392637.000000 4572364.000000 280.000000
2392687.000000 4572364.000000 278.000000
2392737.000000 4572364.000000 274.000000
2392837.000000 4572364.000000 271.000000
2392887.000000 4572364.000000 276.000000
2392887.000000 4572414.000000 267.000000
2392787.000000 4572414.000000 256.000000
2392787.000000 4572464.000000 245.000000
2392787.000000 4572514.000000 238.000000
2392837.000000 4572514.000000 252.000000
2392887.000000 4572514.000000 271.000000
2392887.000000 4572464.000000 278.000000
2392837.000000 4572464.000000 256.000000
2392937.000000 4572514.000000 274.000000
2392987.000000 4572514.000000 281.000000
2393037.000000 4572514.000000 292.000000
2393037.000000 4572464.000000 293.000000
2392987.000000 4572464.000000 282.000000
2393037.000000 4572414.000000 296.000000
2392987.000000 4572414.000000 284.000000
2392937.000000 4572414.000000 275.000000
2392987.000000 4572364.000000 280.000000
2393037.000000 4572364.000000 292.000000
2392987.000000 4572314.000000 275.000000
2393037.000000 4572314.000000 287.000000
2392937.000000 4572314.000000 277.000000
2392887.000000 4572314.000000 280.000000
2392787.000000 4572314.000000 277.000000
2392837.000000 4572264.000000 282.000000
2392787.000000 4572264.000000 280.000000
2392787.000000 4572214.000000 280.000000
2392837.000000 4572214.000000 283.000000
2392887.000000 4572214.000000 285.000000
2392937.000000 4572214.000000 289.000000
2392937.000000 4572264.000000 283.000000
2392987.000000 4572264.000000 286.000000
2393037.000000 4572264.000000 297.000000
2393037.000000 4572214.000000 310.000000
2392987.000000 4572214.000000 298.000000
2393037.000000 4572164.000000 321.000000
2392987.000000 4572164.000000 306.000000
2392937.000000 4572164.000000 294.000000
2392937.000000 4572114.000000 295.000000
2392987.000000 4572114.000000 309.000000
2393037.000000 4572114.000000 327.000000
2392987.000000 4572064.000000 308.000000
2393037.000000 4572064.000000 326.000000
2393037.000000 4572014.000000 322.000000
2392987.000000 4572014.000000 309.000000
2392937.000000 4572014.000000 294.000000
2392937.000000 4572064.000000 292.000000
2392837.000000 4572064.000000 265.000000
2392887.000000 4572064.000000 276.000000
2392887.000000 4572014.000000 278.000000
2392837.000000 4572014.000000 277.000000
2392787.000000 4572014.000000 268.000000
2392787.000000 4572064.000000 252.000000
2392787.000000 4572114.000000 264.000000
2392837.000000 4572114.000000 273.000000
2392887.000000 4572114.000000 280.000000
2392887.000000 4572164.000000 284.000000
2392837.000000 4572164.000000 280.000000
2392787.000000 4572164.000000 275.000000
2392737.000000 4572164.000000 272.000000
2392737.000000 4572114.000000 260.000000
2392687.000000 4572114.000000 256.000000
2392637.000000 4572114.000000 251.000000
2392637.000000 4572164.000000 266.000000
2392587.000000 4572164.000000 260.000000
2392537.000000 4572164.000000 246.000000
2392537.000000 4572114.000000 234.000000
2392587.000000 4572114.000000 241.000000
2392537.000000 4572064.000000 228.000000
2392537.000000 4572014.000000 237.000000
2392587.000000 4572014.000000 239.000000
2392637.000000 4572014.000000 253.000000
2392687.000000 4572014.000000 260.000000
2392637.000000 4572064.000000 243.000000
2392687.000000 4572064.000000 250.000000
2392737.000000 4572064.000000 253.000000
2392737.000000 4572014.000000 265.000000
2392737.000000 4571964.000000 290.000000
2392687.000000 4571964.000000 283.000000
2392637.000000 4571964.000000 273.000000
2392537.000000 4571964.000000 254.000000
2392587.000000 4571964.000000 262.000000
2392537.000000 4571914.000000 269.000000
2392587.000000 4571864.000000 296.000000
2392687.000000 4571864.000000 325.000000
2392637.000000 4571864.000000 316.000000
2392637.000000 4571914.000000 296.000000
2392687.000000 4571914.000000 309.000000
2392737.000000 4571914.000000 318.000000
2392737.000000 4571864.000000 329.000000
2392787.000000 4571864.000000 332.000000
2392887.000000 4571864.000000 325.000000
2392837.000000 4571864.000000 331.000000
2392887.000000 4571914.000000 322.000000
2392787.000000 4571914.000000 324.000000
2392787.000000 4571964.000000 297.000000
2392887.000000 4571964.000000 303.000000
2392837.000000 4571964.000000 302.000000
2392937.000000 4571964.000000 304.000000
2393037.000000 4571964.000000 318.000000
2393037.000000 4571914.000000 312.000000
2392987.000000 4571914.000000 310.000000
2392937.000000 4571914.000000 313.000000
2392937.000000 4571864.000000 314.000000
2392987.000000 4571864.000000 306.000000
2393037.000000 4571864.000000 306.000000
2393037.000000 4571814.000000 299.000000
2392987.000000 4571764.000000 296.000000
2392937.000000 4571764.000000 304.000000
2392937.000000 4571814.000000 310.000000
2392887.000000 4571814.000000 320.000000
2392837.000000 4571814.000000 328.000000
2392787.000000 4571814.000000 330.000000
2392787.000000 4571764.000000 324.000000
2392837.000000 4571764.000000 321.000000
2392887.000000 4571764.000000 314.000000
2392787.000000 4571714.000000 316.000000
2392837.000000 4571714.000000 313.000000
2392887.000000 4571714.000000 306.000000
2392937.000000 4571714.000000 298.000000
2393037.000000 4571714.000000 286.000000
2392987.000000 4571714.000000 292.000000
2393037.000000 4571664.000000 281.000000
2392987.000000 4571664.000000 287.000000
2392937.000000 4571664.000000 293.000000
2392937.000000 4571614.000000 289.000000
2392987.000000 4571614.000000 284.000000
2393037.000000 4571614.000000 279.000000
2392987.000000 4571564.000000 281.000000
2393037.000000 4571564.000000 278.000000
2393037.000000 4571514.000000 277.000000
2392987.000000 4571514.000000 278.000000
2392937.000000 4571564.000000 284.000000
2392887.000000 4571564.000000 285.000000
2392887.000000 4571514.000000 279.000000
2392787.000000 4571564.000000 288.000000
2392787.000000 4571614.000000 298.000000
2392887.000000 4571614.000000 291.000000
2392837.000000 4571614.000000 295.000000
2392887.000000 4571664.000000 299.000000
2392837.000000 4571664.000000 303.000000
2392787.000000 4571664.000000 307.000000
2392687.000000 4571664.000000 302.000000
2392637.000000 4571664.000000 293.000000
2392687.000000 4571614.000000 289.000000
2392637.000000 4571614.000000 280.000000
2392737.000000 4571614.000000 297.000000
2392737.000000 4571564.000000 286.000000
2392737.000000 4571514.000000 279.000000
2392687.000000 4571514.000000 275.000000
2392637.000000 4571514.000000 276.000000
2392637.000000 4571564.000000 274.000000
2392587.000000 4571514.000000 276.000000
2392537.000000 4571514.000000 274.000000
2392537.000000 4571564.000000 264.000000
2392537.000000 4571614.000000 258.000000
2392587.000000 4571614.000000 271.000000
2392587.000000 4571664.000000 280.000000
2392537.000000 4571664.000000 260.000000
2392587.000000 4571714.000000 292.000000
2392637.000000 4571714.000000 308.000000
2392687.000000 4571714.000000 316.000000
2392737.000000 4571714.000000 318.000000
2392687.000000 4571764.000000 326.000000
2392737.000000 4571764.000000 326.000000
2392737.000000 4571814.000000 331.000000
2392687.000000 4571814.000000 329.000000
2392637.000000 4571814.000000 322.000000
2392587.000000 4571814.000000 300.000000
2392587.000000 4571764.000000 299.000000
2392537.000000 4571764.000000 274.000000
2392537.000000 4571814.000000 277.000000
2392487.000000 4571814.000000 256.000000
2392487.000000 4571764.000000 252.000000
2392437.000000 4571764.000000 233.000000
2392387.000000 4571814.000000 226.000000
2392337.000000 4571814.000000 220.000000
2392287.000000 4571814.000000 224.000000
2392237.000000 4571764.000000 243.000000
2392287.000000 4571764.000000 238.000000
2392337.000000 4571764.000000 229.000000
2392287.000000 4571714.000000 245.000000
2392237.000000 4571714.000000 241.000000
2392337.000000 4571714.000000 242.000000
2392387.000000 4571714.000000 235.000000
2392487.000000 4571714.000000 248.000000
2392437.000000 4571714.000000 229.000000
2392437.000000 4571664.000000 244.000000
2392387.000000 4571664.000000 249.000000
2392437.000000 4571614.000000 250.000000
2392487.000000 4571614.000000 250.000000
2392487.000000 4571564.000000 258.000000
2392487.000000 4571514.000000 271.000000
2392437.000000 4571514.000000 261.000000
2392387.000000 4571514.000000 253.000000
2392387.000000 4571564.000000 251.000000
2392337.000000 4571514.000000 255.000000
2392287.000000 4571514.000000 260.000000
2392237.000000 4571514.000000 259.000000
2392237.000000 4571564.000000 239.000000
2392287.000000 4571564.000000 245.000000
2392237.000000 4571614.000000 229.000000
2392287.000000 4571614.000000 244.000000
2392337.000000 4571614.000000 252.000000
2392287.000000 4571664.000000 246.000000
2392237.000000 4571664.000000 235.000000
2392137.000000 4571664.000000 222.000000
2392087.000000 4571664.000000 223.000000
2392087.000000 4571614.000000 225.000000
2392187.000000 4571614.000000 227.000000
2392187.000000 4571564.000000 237.000000
2392187.000000 4571514.000000 256.000000
2392137.000000 4571514.000000 251.000000
2392087.000000 4571514.000000 248.000000
2392087.000000 4571564.000000 233.000000
2392137.000000 4571564.000000 232.000000
2392037.000000 4571514.000000 254.000000
2391987.000000 4571514.000000 267.000000
2391987.000000 4571564.000000 246.000000
2391987.000000 4571614.000000 231.000000
2392037.000000 4571614.000000 228.000000
2392037.000000 4571664.000000 225.000000
2391987.000000 4571664.000000 227.000000
2391987.000000 4571714.000000 232.000000
2392037.000000 4571714.000000 226.000000
2392087.000000 4571714.000000 222.000000
2392137.000000 4571714.000000 223.000000
2392187.000000 4571714.000000 229.000000
2392187.000000 4571764.000000 231.000000
2392187.000000 4571814.000000 221.000000
2392137.000000 4571814.000000 213.000000
2392087.000000 4571814.000000 217.000000
2392037.000000 4571764.000000 226.000000
2391987.000000 4571764.000000 236.000000
2391987.000000 4571814.000000 238.000000
2391987.000000 4571864.000000 241.000000
2392037.000000 4571864.000000 228.000000
2391987.000000 4571914.000000 244.000000
2391987.000000 4571964.000000 243.000000
2392037.000000 4571964.000000 233.000000
2392137.000000 4571964.000000 208.000000
2392087.000000 4571964.000000 222.000000
2392187.000000 4571964.000000 199.000000
2392187.000000 4571914.000000 198.000000
2392137.000000 4571914.000000 207.000000
2392087.000000 4571914.000000 221.000000
2392087.000000 4571864.000000 215.000000
2392187.000000 4571864.000000 202.000000
2392237.000000 4571864.000000 209.000000
2392287.000000 4571914.000000 199.000000
2392337.000000 4571864.000000 216.000000
2392387.000000 4571864.000000 228.000000
2392487.000000 4571864.000000 259.000000
2392437.000000 4571864.000000 242.000000
2392487.000000 4571914.000000 257.000000
2392387.000000 4571914.000000 232.000000
2392387.000000 4571964.000000 229.000000
2392487.000000 4571964.000000 245.000000
2392437.000000 4571964.000000 235.000000
2392337.000000 4571964.000000 220.000000
2392287.000000 4571964.000000 204.000000
2392237.000000 4571964.000000 197.000000
2392237.000000 4572014.000000 199.000000
2392287.000000 4572064.000000 201.000000
2392337.000000 4572064.000000 204.000000
2392337.000000 4572014.000000 213.000000
2392387.000000 4572014.000000 217.000000
2392437.000000 4572014.000000 218.000000
2392487.000000 4572014.000000 229.000000
2392437.000000 4572064.000000 203.000000
2392487.000000 4572064.000000 218.000000
2392387.000000 4572064.000000 205.000000
2392437.000000 4572114.000000 208.000000
2392487.000000 4572114.000000 222.000000
2392487.000000 4572164.000000 229.000000
2392437.000000 4572164.000000 216.000000
2392387.000000 4572164.000000 210.000000
2392337.000000 4572114.000000 200.000000
2392287.000000 4572114.000000 198.000000
2392237.000000 4572114.000000 196.000000
2392287.000000 4572164.000000 197.000000
2392237.000000 4572164.000000 192.000000
2392187.000000 4572164.000000 191.000000
2392137.000000 4572164.000000 197.000000
2392137.000000 4572114.000000 200.000000
2392187.000000 4572114.000000 196.000000
2392187.000000 4572064.000000 198.000000
2392137.000000 4572014.000000 207.000000
2392087.000000 4572014.000000 219.000000
2392087.000000 4572064.000000 214.000000
2392037.000000 4572014.000000 228.000000
2391987.000000 4572014.000000 237.000000
2391987.000000 4572064.000000 235.000000
2391987.000000 4572114.000000 239.000000
2392037.000000 4572114.000000 223.000000
2392037.000000 4572164.000000 227.000000
2391987.000000 4572164.000000 244.000000
2391887.000000 4572164.000000 282.000000
2391837.000000 4572164.000000 300.000000
2391837.000000 4572114.000000 287.000000
2391887.000000 4572114.000000 273.000000
2391937.000000 4572114.000000 257.000000
2391937.000000 4572064.000000 251.000000
2391937.000000 4572014.000000 250.000000
2391887.000000 4572014.000000 266.000000
2391837.000000 4572014.000000 277.000000
2391837.000000 4572064.000000 279.000000
2391787.000000 4572014.000000 278.000000
2391737.000000 4572014.000000 266.000000
2391687.000000 4572014.000000 250.000000
2391687.000000 4572064.000000 247.000000
2391737.000000 4572064.000000 263.000000
2391687.000000 4572114.000000 250.000000
2391737.000000 4572114.000000 267.000000
2391787.000000 4572114.000000 283.000000
2391787.000000 4572164.000000 297.000000
2391737.000000 4572164.000000 278.000000
2391687.000000 4572164.000000 258.000000
2391637.000000 4572164.000000 239.000000
2391637.000000 4572114.000000 232.000000
2391587.000000 4572114.000000 214.000000
2391587.000000 4572164.000000 221.000000
2391537.000000 4572164.000000 208.000000
2391437.000000 4572164.000000 181.000000
2391437.000000 4572114.000000 176.000000
2391487.000000 4572114.000000 179.000000
2391537.000000 4572114.000000 196.000000
2391487.000000 4572064.000000 187.000000
2391437.000000 4572064.000000 180.000000
2391437.000000 4572014.000000 183.000000
2391487.000000 4572014.000000 195.000000
2391537.000000 4572014.000000 202.000000
2391587.000000 4572014.000000 214.000000
2391587.000000 4572064.000000 210.000000
2391637.000000 4572064.000000 229.000000
2391637.000000 4572014.000000 232.000000
2391587.000000 4571964.000000 221.000000
2391437.000000 4571964.000000 178.000000
2391487.000000 4571964.000000 191.000000
2391537.000000 4571964.000000 204.000000
2391537.000000 4571914.000000 200.000000
2391487.000000 4571914.000000 179.000000
2391437.000000 4571914.000000 164.000000
2391487.000000 4571864.000000 168.000000
2391537.000000 4571864.000000 192.000000
2391587.000000 4571864.000000 210.000000
2391587.000000 4571914.000000 221.000000
2391637.000000 4571914.000000 235.000000
2391637.000000 4571864.000000 221.000000
2391687.000000 4571864.000000 233.000000
2391737.000000 4571864.000000 248.000000
2391787.000000 4571864.000000 265.000000
2391787.000000 4571914.000000 276.000000
2391737.000000 4571914.000000 262.000000
2391687.000000 4571914.000000 247.000000
2391737.000000 4571964.000000 268.000000
2391687.000000 4571964.000000 253.000000
2391837.000000 4571964.000000 279.000000
2391937.000000 4571964.000000 255.000000
2391887.000000 4571964.000000 271.000000
2391937.000000 4571914.000000 259.000000
2391887.000000 4571914.000000 275.000000
2391837.000000 4571914.000000 280.000000
2391837.000000 4571864.000000 277.000000
2391887.000000 4571864.000000 276.000000
2391937.000000 4571814.000000 253.000000
2391937.000000 4571764.000000 249.000000
2391887.000000 4571764.000000 254.000000
2391837.000000 4571764.000000 245.000000
2391837.000000 4571814.000000 266.000000
2391787.000000 4571814.000000 249.000000
2391687.000000 4571814.000000 212.000000
2391737.000000 4571814.000000 229.000000
2391687.000000 4571764.000000 195.000000
2391737.000000 4571764.000000 211.000000
2391787.000000 4571764.000000 230.000000
2391687.000000 4571714.000000 185.000000
2391787.000000 4571714.000000 212.000000
2391837.000000 4571714.000000 223.000000
2391937.000000 4571714.000000 237.000000
2391887.000000 4571714.000000 232.000000
2391937.000000 4571664.000000 228.000000
2391887.000000 4571664.000000 217.000000
2391837.000000 4571664.000000 209.000000
2391837.000000 4571614.000000 210.000000
2391887.000000 4571614.000000 222.000000
2391937.000000 4571614.000000 232.000000
2391937.000000 4571564.000000 250.000000
2391937.000000 4571514.000000 276.000000
2391887.000000 4571514.000000 268.000000
2391837.000000 4571514.000000 245.000000
2391837.000000 4571564.000000 227.000000
2391787.000000 4571514.000000 221.000000
2391737.000000 4571514.000000 214.000000
2391687.000000 4571514.000000 231.000000
2391687.000000 4571564.000000 218.000000
2391737.000000 4571564.000000 205.000000
2391687.000000 4571614.000000 204.000000
2391737.000000 4571614.000000 199.000000
2391787.000000 4571614.000000 202.000000
2391787.000000 4571664.000000 202.000000
2391737.000000 4571664.000000 197.000000
2391687.000000 4571664.000000 190.000000
2391587.000000 4571664.000000 188.000000
2391587.000000 4571614.000000 209.000000
2391637.000000 4571614.000000 207.000000
2391637.000000 4571564.000000 233.000000
2391637.000000 4571514.000000 257.000000
2391587.000000 4571514.000000 262.000000
2391587.000000 4571564.000000 234.000000
2391487.000000 4571564.000000 253.000000
2391537.000000 4571564.000000 248.000000
2391537.000000 4571514.000000 275.000000
2391487.000000 4571514.000000 276.000000
2391437.000000 4571514.000000 255.000000
2391437.000000 4571564.000000 237.000000
2391437.000000 4571614.000000 217.000000
2391537.000000 4571614.000000 218.000000
2391487.000000 4571614.000000 226.000000
2391537.000000 4571664.000000 192.000000
2391487.000000 4571664.000000 199.000000
2391437.000000 4571664.000000 196.000000
2391437.000000 4571714.000000 175.000000
2391537.000000 4571714.000000 175.000000
2391487.000000 4571714.000000 178.000000
2391587.000000 4571714.000000 176.000000
2391637.000000 4571714.000000 176.000000
2391637.000000 4571764.000000 183.000000
2391637.000000 4571814.000000 200.000000
2391587.000000 4571814.000000 190.000000
2391537.000000 4571814.000000 177.000000
2391537.000000 4571764.000000 171.000000
2391487.000000 4571764.000000 166.000000
2391437.000000 4571764.000000 160.000000
2391437.000000 4571814.000000 150.000000
2391387.000000 4571764.000000 161.000000
2391337.000000 4571764.000000 168.000000
2391287.000000 4571764.000000 172.000000
2391287.000000 4571814.000000 156.000000
2391337.000000 4571814.000000 155.000000
2391237.000000 4571814.000000 150.000000
2391137.000000 4571814.000000 157.000000
2391187.000000 4571814.000000 144.000000
2391137.000000 4571764.000000 167.000000
2391187.000000 4571764.000000 155.000000
2391237.000000 4571764.000000 166.000000
2391137.000000 4571714.000000 184.000000
2391237.000000 4571714.000000 180.000000
2391337.000000 4571714.000000 177.000000
2391287.000000 4571714.000000 182.000000
2391387.000000 4571714.000000 173.000000
2391337.000000 4571664.000000 188.000000
2391287.000000 4571664.000000 194.000000
2391287.000000 4571614.000000 213.000000
2391387.000000 4571614.000000 204.000000
2391387.000000 4571514.000000 240.000000
2391337.000000 4571514.000000 243.000000
2391287.000000 4571514.000000 259.000000
2391287.000000 4571564.000000 236.000000
2391337.000000 4571564.000000 223.000000
2391237.000000 4571514.000000 268.000000
2391187.000000 4571514.000000 257.000000
2391137.000000 4571514.000000 240.000000
2391137.000000 4571564.000000 225.000000
2391187.000000 4571564.000000 237.000000
2391137.000000 4571614.000000 210.000000
2391187.000000 4571614.000000 213.000000
2391237.000000 4571614.000000 219.000000
2391237.000000 4571664.000000 198.000000
2391187.000000 4571664.000000 190.000000
2391137.000000 4571664.000000 197.000000
2391087.000000 4571664.000000 201.000000
2391037.000000 4571614.000000 205.000000
2391087.000000 4571614.000000 207.000000
2391087.000000 4571564.000000 216.000000
2391087.000000 4571514.000000 226.000000
2391037.000000 4571514.000000 225.000000
2391037.000000 4571564.000000 214.000000
2390937.000000 4571564.000000 218.000000
2390987.000000 4571564.000000 217.000000
2390987.000000 4571514.000000 228.000000
2390937.000000 4571514.000000 227.000000
2390887.000000 4571514.000000 222.000000
2390887.000000 4571564.000000 212.000000
2390887.000000 4571614.000000 201.000000
2390987.000000 4571614.000000 206.000000
2390937.000000 4571614.000000 205.000000
2390987.000000 4571664.000000 200.000000
2390887.000000 4571664.000000 196.000000
2390887.000000 4571714.000000 199.000000
2390937.000000 4571714.000000 201.000000
2391037.000000 4571714.000000 202.000000
2391087.000000 4571764.000000 189.000000
2391087.000000 4571814.000000 185.000000
2391037.000000 4571814.000000 201.000000
2390987.000000 4571814.000000 204.000000
2390937.000000 4571764.000000 204.000000
2390887.000000 4571814.000000 206.000000
2390987.000000 4571864.000000 195.000000
2390937.000000 4571864.000000 202.000000
2390987.000000 4571914.000000 181.000000
2390937.000000 4571914.000000 194.000000
2390887.000000 4571914.000000 203.000000
2390887.000000 4571964.000000 195.000000
2390937.000000 4571964.000000 181.000000
2391037.000000 4571964.000000 146.000000
2391087.000000 4571964.000000 128.000000
2391087.000000 4571914.000000 144.000000
